# .PCD v0.7 - Point Cloud Data file format
VERSION 0.7
FIELDS x y z normal_x normal_y normal_z curvature
SIZE 4 4 4 4 4 4 4
TYPE F F F F F F F
COUNT 1 1 1 1 1 1 1
WIDTH 616
HEIGHT 1
VIEWPOINT 0 0 0 1 0 0 0
POINTS 616
DATA ascii
-376.12613 631.44745 1918.2798 0.18729599 -0.959167 -0.21194074 0.02066865
-370.28934 633.53088 1918.5764 0.18361819 -0.9595769 -0.21329924 0.019863153
-330.19595 636.88666 1913.6318 -0.019665681 -0.98136199 -0.19115947 0.028822606
-323.37512 635.56244 1916.2598 -0.038577706 -0.98261738 -0.18158975 0.030674258
-316.54639 635.16541 1914.9849 -0.027805155 -0.98377204 -0.17725515 0.031695314
-21.765106 626.63257 1915.4321 0.76778454 0.63929987 -0.042456634 0.05894129
-20.176344 622.3761 1913.6514 0.79006493 0.60737121 -0.083051823 0.058024071
69.168251 622.81195 1916.8303 0.64657772 -0.7611776 -0.050457004 0.026241334
71.934128 626.38965 1914.72 0.67093611 -0.73645002 -0.08652246 0.026975583
-392.2915 628.1084 1913.9564 0.10390144 -0.9709065 -0.21574314 0.019100586
-385.71631 629.22247 1913.6667 0.15831019 -0.96398157 -0.21372284 0.018804051
-373.27246 633.08667 1914.4069 0.19893007 -0.95851952 -0.20412542 0.020665603
-365.87125 635.17297 1914.1255 0.16942672 -0.96489435 -0.20068249 0.020937832
-355.41901 637.04718 1915.9283 0.11380431 -0.97205633 -0.20531705 0.025782889
-343.95831 637.20319 1916.1464 0.0555261 -0.97836125 -0.19931424 0.028575007
-334.00955 636.7323 1914.9373 -0.012105081 -0.9836067 -0.1799202 0.030329481
-326.61426 635.89587 1915.8967 -0.029509293 -0.98249888 -0.1839162 0.029943936
-316.60431 634.93909 1915.717 -0.02146424 -0.98218691 -0.18667676 0.030186133
-305.34933 634.29645 1916.4264 0.025712432 -0.98433477 -0.17442468 0.033943977
-294.80106 634.70325 1914.9843 0.073934078 -0.97759074 -0.19710425 0.034432992
-285.86105 636.07605 1913.1124 0.12139794 -0.96964604 -0.21224779 0.03150636
-274.28168 638.07831 1914.1854 0.16761823 -0.9610799 -0.21961221 0.025357781
-268.54309 638.8606 1919.4858 0.16098745 -0.96398497 -0.21169797 0.024667168
-186.86523 644.65491 1920.6516 0.041538708 -0.95961434 -0.2782352 0.01501173
-126.77723 649.44672 1921.2833 0.0627831 -0.96325511 -0.26114717 0.019237354
-32.776894 640.62146 1917.8473 -0.57908946 -0.81161588 -0.07703907 0.070292823
-26.278494 634.1449 1914.8566 0.69670647 0.71725678 0.011951318 0.063172504
76.227158 631.35071 1916.1007 0.6442256 -0.75100386 -0.14479853 0.028909324
82.261024 637.91357 1915.2456 0.62458271 -0.76012421 -0.17918606 0.033216309
-365.19217 635.58588 1912.7173 0.17283423 -0.96528596 -0.19583504 0.021428479
-357.189 637.30365 1913.9427 0.12166629 -0.97276592 -0.19729114 0.026453488
-336.49173 636.67181 1916.6853 0.0077996855 -0.98243648 -0.18643437 0.031174699
-320.56946 634.31384 1918.6436 -0.023370398 -0.98628718 -0.16337509 0.031568497
-317.65039 635.50262 1911.0614 -0.018045891 -0.98219526 -0.18699419 0.029212009
-307.7868 635.75317 1908.3984 0.02292884 -0.97720408 -0.21106021 0.031817123
-281.6123 635.80768 1918.6654 0.14564626 -0.97123724 -0.18837556 0.029557582
-273.09946 638.53796 1913.2938 0.16936494 -0.96073705 -0.21977216 0.024687085
-264.92593 641.29028 1913.8212 0.18744773 -0.95216829 -0.2413273 0.022964239
-254.93199 644.99194 1914.566 0.16660786 -0.95465016 -0.24674858 0.021705983
-248.10492 646.27142 1916.2926 0.14988081 -0.95554256 -0.2539176 0.020348772
-233.68517 647.13 1917.802 0.071510568 -0.95652038 -0.28276318 0.018873803
-227.55162 647.64453 1916.7131 0.032180686 -0.95716488 -0.28774947 0.018802091
-216.06563 648.07556 1913.6407 0.0024263591 -0.95434231 -0.29870534 0.017856305
-205.83708 647.16107 1913.6499 -0.014986632 -0.95579249 -0.29365981 0.017087564
-195.5681 646.94952 1912.6067 0.0050895205 -0.95608139 -0.29305705 0.016383125
-184.4306 646.03003 1915.7908 0.043553241 -0.95685387 -0.28728691 0.015789099
-176.67819 647.4314 1914.2987 0.062202524 -0.95541656 -0.28863484 0.014354387
-152.91409 649.87079 1914.7216 0.069170184 -0.95667231 -0.28283146 0.015398606
-144.27301 650.65387 1913.825 0.066807725 -0.95851398 -0.27710599 0.017589478
-127.85297 649.88934 1919.0846 0.069612846 -0.9627797 -0.26116914 0.017757228
-114.70427 651.15833 1917.0536 0.012642402 -0.96191412 -0.2730594 0.022145689
-105.97517 652.24011 1917.4128 -0.023996036 -0.96017116 -0.27838024 0.024732543
-94.500275 652.20526 1918.1377 -0.074538201 -0.95269096 -0.2946592 0.028854251
-80.167625 650.9696 1916.4348 -0.12045701 -0.9572528 -0.26297754 0.030275749
-73.386826 649.20856 1916.6747 -0.14729165 -0.957412 -0.24832925 0.031691354
-63.287449 648.34637 1914.7523 -0.19204015 -0.96128803 -0.19760042 0.038640331
-51.812069 647.07977 1915.3413 -0.31122771 -0.93560183 -0.166693 0.051788691
-44.793049 645.40063 1915.8718 -0.40729049 -0.90403086 -0.12977931 0.056101974
-39.169849 644.3656 1914.3016 -0.48191643 -0.86974674 -0.10628787 0.06396047
-31.768503 640.72943 1911.9471 -0.60106534 -0.79698122 -0.059509717 0.067048587
87.985741 643.30719 1915.0659 0.56297565 -0.80271447 -0.19674326 0.037424717
384.67459 653.53217 1916.616 0.026469469 -0.97508079 -0.22026543 0.026982283
-236.80817 648.12335 1914.7745 0.086637698 -0.96040159 -0.26480699 0.019705711
-224.55244 649.4306 1910.5582 0.031524863 -0.96124852 -0.27387491 0.019807352
-215.53784 647.26807 1915.1361 -0.0084703173 -0.95310646 -0.30251673 0.018204123
-204.48897 646.65643 1914.4211 -0.013296373 -0.95426768 -0.29865775 0.017904686
-192.48869 646.52081 1913.9568 0.018922629 -0.95269924 -0.30332512 0.016711598
-184.75508 645.93811 1915.5322 0.042249225 -0.95614123 -0.28984296 0.016254609
-152.42188 651.01654 1911.8375 0.067297734 -0.95681924 -0.28278607 0.016223211
-140.36523 651.12897 1912.399 0.065774821 -0.96077508 -0.26941589 0.016776223
-132.36029 650.23096 1917.1638 0.07299573 -0.96066791 -0.26793423 0.017101068
-125.27343 651.73407 1911.8308 0.048055097 -0.96615565 -0.25344414 0.018342283
-84.07428 652.90259 1911.9041 -0.11763882 -0.9606775 -0.25151509 0.028811457
-75.645241 649.24823 1917.2614 -0.13132246 -0.95726907 -0.25766325 0.030681968
-34.267578 642.72498 1909.9204 -0.57103574 -0.81650674 -0.085058711 0.064641826
91.502472 647.16095 1913.0547 0.53352052 -0.82250696 -0.19707391 0.047043793
98.373817 650.21814 1914.6819 0.41707328 -0.88743663 -0.19622971 0.051456403
107.54406 653.24054 1913.4564 0.32261613 -0.92090166 -0.2187669 0.038282808
117.09976 654.2876 1914.515 0.2490671 -0.94765866 -0.1997714 0.031544182
125.69307 655.14789 1915.5194 0.22515967 -0.95611292 -0.18748662 0.02494229
135.91031 656.94464 1913.6025 0.19462323 -0.96728295 -0.16274355 0.022689058
145.32722 659.21594 1914.3234 0.19122507 -0.97213739 -0.13557974 0.021040119
153.33844 660.78094 1917.2855 0.16439924 -0.97906405 -0.12002691 0.023554083
167.96153 662.58905 1917.4922 0.11103984 -0.98610669 -0.12354651 0.020083327
170.82057 663.11188 1913.4364 0.10597264 -0.9863494 -0.12603419 0.021395357
202.18837 666.71521 1915.1235 0.054376218 -0.97823107 -0.20026781 0.028878981
285.30475 666.87976 1919.01 -0.060966346 -0.98422539 -0.16608272 0.022753831
343.35916 657.71075 1917.771 -0.1564308 -0.95640862 -0.2466007 0.023105752
56.820057 608.19745 2123.0933 0.044813316 -0.97383469 -0.22279541 0.026454603
63.756203 609.10992 2122.7944 0.052393496 -0.97670364 -0.20809822 0.025886213
74.886642 610.66431 2122.1995 0.03980308 -0.98080164 -0.19090267 0.026386566
85.363991 610.76733 2124.573 0.036907732 -0.98581403 -0.16373292 0.024773881
97.391594 611.13397 2121.7483 -0.00059134042 -0.9919439 -0.12667668 0.020967772
113.19223 610.08905 2120.0461 -0.026839547 -0.99164367 -0.12618411 0.01684121
126.72496 608.40076 2126.1553 -0.018001363 -0.99440777 -0.10406287 0.01652078
132.33937 608.71008 2125.1953 0.0020025603 -0.99382639 -0.11092854 0.012836038
144.84489 609.46948 2122.4683 -0.0016966668 -0.99312526 -0.11704429 0.013237537
156.44138 609.34338 2121.5447 0.0079261912 -0.989851 -0.14188769 0.01436041
164.48207 609.08496 2123.4224 0.0028246534 -0.99000746 -0.1409867 0.015656972
176.38077 609.15576 2120.5754 0.015857222 -0.9862119 -0.164726 0.015977357
182.08047 609.35602 2121.1882 0.010343291 -0.98682946 -0.16143322 0.01649474
195.15225 609.31598 2122.7397 0.0015624651 -0.98614514 -0.16587755 0.017356956
204.89311 609.12402 2123.0645 -0.0086142952 -0.9867363 -0.16210268 0.016169062
235.2252 608.16791 2123.6709 -0.0074360929 -0.98084283 -0.19465894 0.013771034
244.73358 608.49445 2122.5918 -0.0034662671 -0.97941494 -0.20182751 0.01331448
254.11353 608.4762 2124.5315 0.00968483 -0.97862291 -0.20543459 0.014964154
264.62286 609.19952 2123.9226 0.018194238 -0.97744191 -0.21041945 0.014517414
272.52869 609.28094 2124.0686 0.025111726 -0.97872907 -0.20361443 0.014316261
282.03857 608.18396 2129.2527 0.046641916 -0.97979373 -0.1944963 0.014572131
294.13016 608.84973 2127.8499 0.054319065 -0.98058301 -0.1884314 0.015622279
308.12341 611.6123 2121.4346 0.052657008 -0.98143685 -0.18441518 0.015577519
317.2081 612.84131 2121.1721 0.035813566 -0.98424977 -0.17311797 0.016620735
325.31595 612.83392 2124.4182 -6.0269766e-05 -0.98141283 -0.19190834 0.020560592
334.83533 612.49414 2124.5393 -0.027856993 -0.97958618 -0.19908524 0.021496119
343.9086 612.65112 2122.8894 -0.058821265 -0.97400957 -0.21873602 0.02136053
353.39496 611.04865 2123.8813 -0.094172992 -0.96796995 -0.23273496 0.022761667
366.00961 608.69147 2123.6079 -0.097905234 -0.96661329 -0.23679806 0.023237882
375.05759 606.67767 2125.2161 -0.07861048 -0.971147 -0.22515297 0.022926429
71.760117 609.81464 2124.4084 0.058949772 -0.97625852 -0.20843281 0.027803428
80.417 611.5556 2119.5249 0.026064087 -0.9839043 -0.17678513 0.027357109
328.22501 613.95764 2121.0618 0.0010483483 -0.98340869 -0.18140078 0.021370398
257.0639 -366.11099 2127.0388 0.022865556 -0.72749692 0.6857298 0.14075498
263.03714 -365.90005 2128.1423 0.0528345 -0.7056784 0.7065596 0.11019251
249.36946 -358.7952 2130.7224 -0.18974712 -0.75475973 0.62796003 0.12550177
255.79446 -361.80518 2133.4766 0.0071514654 -0.75224149 0.6588487 0.13423744
265.15591 -359.80655 2132.0388 0.25171795 -0.67402226 0.69450128 0.098453969
269.38354 -360.36224 2124.6382 0.46953323 -0.58074284 0.66503859 0.084903702
239.13004 -349.91534 2131.4363 -0.50973558 -0.7161296 0.47678924 0.1210273
246.3499 -354.56018 2134.6599 -0.24835138 -0.7511642 0.61161584 0.11214563
271.20377 -351.63379 2135.0557 0.50296617 -0.56658602 0.65269089 0.063930854
223.85388 -338.86298 2130.4312 0.84504592 0.50284827 -0.18177193 0.071188055
229.27985 -340.23849 2135.5742 0.7252546 0.60493237 -0.32872882 0.10334893
233.77126 -345.42169 2131.9648 -0.63875639 -0.67001855 0.37823993 0.10897525
276.47705 -342.7659 2134.9487 0.64009017 -0.46387002 0.61246157 0.063703939
220.41264 -329.58115 2136.1169 0.90497571 0.40148571 -0.14081267 0.085859604
224.9355 -336.4462 2135.3191 0.81944996 0.51564956 -0.25021464 0.093147203
277.95322 -336.50156 2136.2429 0.70575881 -0.41311663 0.57553381 0.081035815
281.24673 -330.87979 2133.2153 0.81869906 -0.31008601 0.48329958 0.069415927
218.23964 -323.82843 2138.53 0.93170547 0.34477013 -0.11427339 0.1001119
219.79195 -326.51147 2133.3962 0.93372732 0.34685537 -0.088570133 0.13168135
223.73587 -330.48114 2135.6614 0.8668775 0.4773331 -0.14379311 0.17395476
279.43002 -329.29861 2136.4177 0.78612381 -0.3363249 0.51855081 0.088717327
282.49158 -324.01855 2134.4377 0.87748349 -0.21520668 0.42861271 0.060754545
286.58127 -320.66284 2128.6306 0.93089521 -0.14634021 0.33469185 0.053147685
216.57909 -311.73581 2137.3904 0.99540234 0.092696749 0.024113875 0.082877643
217.34326 -316.24673 2134.7283 0.98650175 0.16355282 0.0080458028 0.10335673
284.77777 -313.66232 2135.8386 0.92363232 -0.16953994 0.34374344 0.082479008
287.37839 -314.2627 2130.7957 0.94369286 -0.13131391 0.30364534 0.060732868
216.5768 -308.01474 2138.3455 0.9954744 0.00080036803 0.09502656 0.070814587
217.86249 -304.77502 2136.1062 0.98358113 -0.083037697 0.16022776 0.084410816
288.35437 -304.32462 2135.5974 0.97176236 -0.058214627 0.22866771 0.10238409
288.49506 -306.32645 2130.5825 0.98210621 -0.056590609 0.17962433 0.10001757
218.44757 -299.68613 2135.499 0.95767742 -0.18812042 0.2178639 0.085440762
220.86307 -291.71191 2132.9888 0.872949 -0.39955354 0.27985176 0.094053917
289.40759 -295.04013 2135.7056 0.98203021 0.12801591 0.13866717 0.12149712
225.49034 -283.82532 2133.8101 0.76443851 -0.57667083 0.28824392 0.075166278
228.51613 -281.93307 2137.6128 0.74885952 -0.62133753 0.2305409 0.097981334
287.16223 -284.80002 2135.5713 0.96502835 0.25834873 0.04445434 0.10743765
287.82632 -286.78287 2130.9646 0.9649781 0.26198292 0.013497385 0.10735591
230.92007 -278.08118 2137.2483 0.68007022 -0.68464607 0.26222929 0.060445063
285.56613 -278.71899 2134.7478 0.92222822 0.38458878 -0.039832607 0.10062076
285.36838 -276.30237 2134.738 0.89489943 0.44483903 -0.035683114 0.10322809
256.14429 -272.84872 2143.553 0.032535724 -0.90987927 0.41359535 0.14452703
280.3941 -267.0596 2139.7656 0.76838362 0.6317274 -0.10250423 0.11075626
283.94714 -271.48276 2136.4976 0.86237824 0.50326717 -0.055008192 0.085088499
265.62918 -264.99979 2143.6233 -0.20668761 -0.9377557 0.27909574 0.15347718
-132.38385 -110.86679 2126.6123 -0.072571844 -0.34485406 0.93584669 0.023724947
-127.61612 -110.54522 2126.636 -0.019634174 -0.35412541 0.93499184 0.024004236
-132.59302 -103.61652 2128.6479 -0.10139306 -0.35243058 0.93032902 0.023329683
-127.81125 -101.16274 2129.9973 -0.049338311 -0.37465045 0.92585248 0.022805871
-151.40518 -90.405151 2128.6367 -0.35636866 -0.32804781 0.87486345 0.01991209
-145.72905 -91.502602 2130.4011 -0.28553221 -0.34700432 0.89334166 0.023029614
-136.02274 -92.007721 2132.5386 -0.17341061 -0.3765662 0.91001463 0.022701614
-125.72416 -94.409119 2132.6733 -0.035560731 -0.39284396 0.91891736 0.022018481
-114.64874 -93.087151 2132.46 0.074123882 -0.40432858 0.91160518 0.017551029
-98.019531 -90.241577 2131.1604 0.2480028 -0.39309373 0.88542187 0.02333609
-158.5094 -81.067696 2128.7883 -0.45065877 -0.33051682 0.82925588 0.019728871
-154.05742 -84.276604 2129.884 -0.39272788 -0.33455572 0.85664302 0.019017722
-146.6458 -85.295525 2132.4878 -0.30808234 -0.35511512 0.88259757 0.021419602
-136.13002 -85.036972 2135.6978 -0.18431869 -0.3905991 0.9019196 0.020794494
-126.12689 -85.299927 2136.8789 -0.052860174 -0.40605894 0.9123168 0.021345224
-115.78501 -84.779419 2136.5911 0.060425878 -0.41603971 0.90733659 0.021735393
-106.16107 -83.870399 2135.749 0.15785611 -0.40648207 0.89991874 0.017427485
-95.839828 -83.710785 2134.0674 0.26894355 -0.39986444 0.87622929 0.022652688
-88.989197 -82.244804 2132.6042 0.35318783 -0.38279146 0.85365629 0.028954649
-76.86084 -81.911552 2127.0781 0.50769997 -0.35625732 0.7844243 0.034368016
-161.96194 -75.046066 2129.4407 -0.49013096 -0.33754689 0.8036378 0.017760471
-155.18025 -73.716431 2133.7676 -0.41506737 -0.36538625 0.83319384 0.019963818
-147.52695 -75.916817 2136.2832 -0.32864815 -0.38257432 0.86349714 0.020862479
-136.26488 -77.999474 2138.6104 -0.18990402 -0.40102625 0.8961665 0.021266425
-126.63132 -76.299522 2141.1729 -0.072099447 -0.41329029 0.90774047 0.019552229
-116.00563 -78.0923 2140.125 0.051439188 -0.41821951 0.90688831 0.022126136
-108.52466 -77.470467 2139.511 0.13316618 -0.41658166 0.89929223 0.018537933
-94.29892 -76.039177 2137.7329 0.28143761 -0.40636694 0.86928636 0.024834549
-85.170868 -75.440926 2135.2239 0.38845876 -0.39229569 0.83378887 0.035055555
-76.083855 -73.223953 2130.4719 0.52901924 -0.35328636 0.77157462 0.03471135
-71.779625 -72.027008 2127.0178 0.59628415 -0.32392538 0.73451859 0.032512516
-164.23387 -64.726357 2132.5295 -0.53131831 -0.33662859 0.7774201 0.020991331
-156.20294 -65.157951 2137.5381 -0.43426254 -0.36533806 0.82337362 0.023376094
-149.9823 -66.541199 2139.7983 -0.36622006 -0.38829044 0.84564376 0.021682432
-127.02061 -69.501907 2144.1118 -0.079912513 -0.41599795 0.90584749 0.020926962
-83.153084 -68.118599 2137.5967 0.42552269 -0.38102677 0.82082218 0.034728322
-76.202469 -62.862225 2135.2053 0.53505218 -0.34767637 0.76996124 0.033211563
-70.021164 -62.22995 2129.7236 0.62589747 -0.31492299 0.71349555 0.028549958
-173.33582 -54.733646 2128.9595 -0.67554009 -0.24119833 0.69675606 0.018587155
-166.35803 -55.143505 2135.4368 -0.58188957 -0.29530266 0.75776041 0.022379076
-159.54182 -57.264961 2139.5994 -0.48409814 -0.34019491 0.80617392 0.024532123
-73.76693 -56.53516 2136.2832 0.56905848 -0.33458227 0.75115055 0.032660894
-67.536263 -53.528511 2131.4043 0.65468234 -0.308301 0.690175 0.028167048
-64.580818 -53.970688 2127.5632 0.69773328 -0.29320741 0.65360361 0.026667206
-174.53758 -42.793835 2132.8047 0.72146428 0.17141482 -0.67089957 0.022948615
-168.29619 -46.255871 2137.5322 -0.63195199 -0.24076577 0.73666042 0.025852365
-72.998344 -47.704723 2139.4668 0.57919723 -0.33318153 0.74398965 0.032804091
-65.970757 -44.206764 2133.8398 0.67103136 -0.31470639 0.67132467 0.030740529
-61.473255 -43.839958 2128.8704 0.72663009 -0.29255921 0.62162519 0.027620833
-179.24263 -34.185707 2130.5151 0.81105918 0.07914263 -0.57958561 0.03181972
-174.6411 -35.041382 2135.082 0.75014442 0.12864603 -0.64863974 0.025156198
-167.26836 -37.356548 2141.9609 -0.654661 -0.21244889 0.72545463 0.027208554
-70.63205 -37.680237 2141.3689 0.60787034 -0.34946817 0.71299767 0.034789275
-63.988514 -36.235676 2135.6851 0.68913448 -0.31677639 0.65172565 0.032055113
-59.612049 -33.132683 2131.6997 0.74981964 -0.29030815 0.59455168 0.027555935
-179.50417 -21.865505 2130.0374 0.86149043 0.014848202 -0.50755674 0.031708404
-176.25735 -25.218309 2134.7888 0.80599493 0.053077653 -0.58953792 0.02997799
-69.190964 -28.573792 2144.5718 0.62776607 -0.37370005 0.68283087 0.036298804
-62.571449 -26.456844 2139.2341 0.70981979 -0.32800251 0.62335402 0.03263744
-57.250275 -23.968584 2132.9534 0.79016531 -0.27276233 0.54885286 0.026006909
-174.68137 -15.146615 2135.6523 0.83019376 0.022179937 -0.55703354 0.028851248
-59.883606 -18.2983 2139.5798 0.76002276 -0.29379275 0.57969928 0.032484584
-55.729008 -16.73188 2133.8313 0.81522447 -0.24167737 0.52630889 0.023681974
-52.7038 -12.404555 2130.887 0.84976399 -0.2100735 0.48349798 0.021260422
-174.30203 -5.2061443 2134.5146 0.85864592 0.024873175 -0.51196533 0.030052248
-56.539146 -11.932724 2137.8931 0.8113566 -0.24888146 0.52892196 0.023722442
-54.612438 -5.9052806 2137.5881 0.83632725 -0.21962687 0.50231546 0.022808721
-51.223576 -4.4359055 2131.7161 0.87012094 -0.17951715 0.45898056 0.020135516
-173.86932 4.0683737 2135.2485 0.87412006 0.071933597 -0.48035371 0.033778094
-172.34882 8.2798204 2138.7813 0.86554915 0.11614521 -0.48717034 0.037020843
-50.019329 4.468544 2133.2935 0.8853488 -0.14782792 0.44079977 0.019181332
-178.62849 19.908268 2130.3877 0.94693142 0.086273395 -0.30964142 0.038655519
-175.76547 15.082854 2135.0532 0.91006207 0.10997377 -0.39961573 0.040458009
-172.79179 13.980322 2140.1506 0.87576991 0.14957038 -0.45897245 0.040412396
-52.006393 13.346039 2139.5945 0.88327742 -0.12634297 0.45150685 0.018581351
-48.290131 14.780996 2133.1184 0.91008514 -0.094500311 0.40350303 0.018980253
-178.49161 27.884764 2133.8938 0.94791603 0.12784383 -0.29173806 0.040363248
-177.26729 25.052965 2136.3167 0.93191856 0.14395571 -0.33287317 0.039872855
-174.46587 19.611532 2139.8259 0.89865524 0.15972319 -0.4085429 0.039872676
-50.633293 21.323109 2138.9124 0.90411127 -0.085115671 0.41873401 0.018569758
-48.243282 25.182362 2134.8655 0.92295897 -0.051961005 0.38137481 0.019197252
-180.50331 37.817673 2134.0466 0.96627992 0.13812603 -0.21731156 0.034181558
-180.00185 35.567951 2134.134 0.96310234 0.13573952 -0.23239771 0.036834259
-178.53925 31.747766 2137.2246 0.94460803 0.15953913 -0.28681508 0.037252996
-49.419338 33.157494 2137.9841 0.92485565 -0.032980341 0.37888566 0.017092181
-47.699951 35.441982 2134.4919 0.94238967 -0.0045481874 0.33448622 0.018323032
-181.78403 45.342503 2134.738 0.97881895 0.12492848 -0.1621922 0.031986028
-47.157555 44.836414 2133.8076 0.9554885 0.036962796 0.29270381 0.018778689
-182.82683 56.867569 2133.1372 0.99446517 0.07226529 -0.076267682 0.030407609
-182.62192 55.396484 2136.1394 0.98795235 0.10025705 -0.11789251 0.031848986
-47.673912 55.219154 2134.7981 0.9600628 0.067790456 0.27144778 0.022614567
-182.26909 65.938446 2134.7273 0.99817401 0.045973852 -0.03917902 0.026820986
-182.39839 61.149609 2138.8425 0.98941165 0.087114304 -0.11608461 0.028917743
-49.067486 63.076714 2137.8635 0.96124196 0.091718122 0.26000318 0.025138745
-48.513313 66.146584 2134.4558 0.97051036 0.11259336 0.2131487 0.028798528
-181.85109 74.927017 2135.0522 0.99851167 0.052178457 0.015869552 0.026395846
-50.517803 75.046379 2139.6157 0.96515352 0.12833273 0.22805573 0.032526977
-49.306385 75.062599 2134.0271 0.97265124 0.17099425 0.15719588 0.036031961
-181.28609 85.80349 2134.6628 0.99232906 0.099083126 0.07392934 0.031205917
-51.289509 86.378563 2136.0369 0.96751654 0.22513184 0.11501043 0.038248442
-182.80713 94.787476 2135.5151 0.98170668 0.15427712 0.1115821 0.034067567
-52.70517 94.395058 2134.4106 0.96473545 0.25790846 0.052618515 0.047523212
-185.87521 105.17793 2134.2817 0.97501105 0.13767344 0.17435443 0.035977326
-185.41306 101.93359 2131.8262 0.97577256 0.12845813 0.17710562 0.04086297
-55.407368 104.38279 2135.1555 0.96647143 0.25673184 -0.0046602064 0.050771244
-188.99643 118.81578 2137.1289 0.969248 0.10833366 0.22095731 0.037463337
-187.85028 114.24553 2134.3159 0.97096479 0.10893398 0.21298066 0.038869176
-60.535152 116.25899 2133.5405 0.95537657 0.26723069 -0.12587042 0.053732567
-59.361202 113.66724 2135.3547 0.96311218 0.25586277 -0.083361655 0.05065275
-190.3938 125.70062 2136.3806 0.95980477 0.084014051 0.26779926 0.041713312
-189.37202 122.07479 2131.4902 0.95213383 0.052794624 0.30108783 0.04536071
-65.623795 129.53857 2130.8892 0.91431713 0.28398874 -0.28874657 0.056074195
-62.293808 123.82713 2136.5671 0.95996773 0.23892707 -0.14620452 0.057065934
-62.609112 123.42265 2136.0784 0.95573407 0.24328138 -0.16548875 0.048960883
-191.18132 134.70174 2135.7893 0.93477786 0.023470758 0.35445666 0.046880525
-67.273262 136.90201 2132.1414 0.89883488 0.29230618 -0.3265776 0.051340312
-65.592369 134.93219 2136.699 0.93403167 0.24896602 -0.2561264 0.049112517
-64.70433 132.10378 2137.3345 0.94522607 0.23644201 -0.22503968 0.047656987
-191.00615 144.57645 2135.7515 0.90504348 -0.036528595 0.42374748 0.045983642
-188.43306 147.49535 2130.2134 0.84754241 -0.09900067 0.52141231 0.056213424
-68.496201 143.25406 2133.5215 0.88541323 0.2942861 -0.35977644 0.051290624
-68.076683 144.05846 2135.8213 0.89775395 0.27419895 -0.34475031 0.045734163
-191.61147 153.49367 2137.0872 0.8897205 -0.062736817 0.45217419 0.048273209
-188.62317 155.98659 2133.0369 0.83548146 -0.1082576 0.53874946 0.054930408
-183.43019 155.67378 2125.9268 0.74257517 -0.16782646 0.64839524 0.05518442
-72.515366 156.24162 2133.2217 0.80987817 0.34256703 -0.47617766 0.045460775
-70.174751 154.11926 2136.6731 0.85608178 0.3090246 -0.41427982 0.046196338
-191.83838 166.89505 2138.8276 0.85450351 -0.10759009 0.50818115 0.041864693
-187.89771 165.74112 2133.4922 0.79286551 -0.15051919 0.59051526 0.04600203
-78.869278 166.51956 2131.6726 0.69971555 0.4173764 -0.57982337 0.038198072
-74.997429 164.28946 2134.8567 0.76403517 0.37651631 -0.52391386 0.041324727
-71.111565 162.36378 2139.3762 0.83701575 0.3217324 -0.44259787 0.045092598
-192.52957 171.07872 2140.5745 0.8485716 -0.1190844 0.51550478 0.038470231
-186.51953 174.08441 2133.5088 0.73643911 -0.18615742 0.65038669 0.04653113
-177.64546 177.50813 2126.9934 0.57025689 -0.2730853 0.77474606 0.038051486
-93.551407 180.06396 2129.7439 -0.49863917 -0.50868577 0.7018531 0.029543873
-84.774918 176.39252 2133.3557 -0.60779464 -0.46852186 0.6411497 0.033271361
-78.813507 173.93706 2137.6428 0.69655514 0.420461 -0.58139789 0.037102949
-191.65965 184.13216 2141.3823 0.80370432 -0.18604812 0.56519508 0.040338676
-187.23947 185.60757 2136.3682 0.71835411 -0.24183843 0.65228951 0.045095842
-178.76735 186.04465 2129.803 0.57189381 -0.28418177 0.76953113 0.039660059
-103.68569 189.89081 2132.8535 -0.40689304 -0.5005545 0.76412255 0.024873471
-95.426048 185.145 2133.5764 -0.48558837 -0.49819887 0.71833265 0.026897892
-85.741898 182.03696 2137.6548 -0.59370381 -0.46526936 0.65653652 0.034022
-81.980202 179.03123 2138.5574 0.64516586 0.45027798 -0.61726069 0.038954262
-189.07103 193.26654 2141.011 0.72466266 -0.28334963 0.62815362 0.042212244
-183.63811 193.52953 2136.0718 0.64031202 -0.31377065 0.70110518 0.037773985
-176.90993 195.03474 2131.7708 0.53012985 -0.34156972 0.77607501 0.035796389
-123.25572 197.66739 2128.8862 -0.22001716 -0.48227146 0.84794259 0.021995941
-114.65859 198.34123 2133.1436 -0.31503281 -0.48209423 0.81752032 0.021047989
-104.91764 192.68965 2134.5918 -0.4014968 -0.49256104 0.77212948 0.023837524
-187.36884 200.29666 2143.1963 0.69699794 -0.3400209 0.63133168 0.042408194
-172.75304 203.85687 2134.499 0.46527213 -0.40471205 0.7872293 0.030030517
-165.62263 205.0638 2132.5623 0.34596127 -0.43060526 0.83360058 0.023574976
-140.62585 209.69632 2130.384 -0.01602339 -0.48369399 0.87509048 0.02453896
-136.43074 209.48438 2130.7234 -0.073830664 -0.48359141 0.8721745 0.024350584
-128.31059 208.83133 2132.9314 -0.18549357 -0.48254544 0.85600352 0.019816149
-117.54265 203.6745 2134.7954 -0.29872516 -0.46997747 0.83059281 0.01929347
-164.2724 212.3705 2136.6848 0.33219996 -0.47471568 0.8150388 0.024113419
-156.12451 213.08423 2134.177 0.19561207 -0.48853078 0.85033733 0.02674835
-146.05975 213.46571 2132.2922 0.055932164 -0.49131683 0.86918318 0.0269082
-135.33095 216.47379 2134.8191 -0.092206009 -0.50034326 0.86090338 0.022679497
-126.63425 214.84172 2136.5286 -0.20340113 -0.48597732 0.84997296 0.018901391
-117.84507 213.00278 2139.3389 -0.29390526 -0.46787584 0.83349377 0.016137414
-141.26407 223.92168 2138.6118 0.0024919105 -0.52381527 0.85182822 0.023705477
-134.85646 222.63821 2138.3245 -0.094001487 -0.51135415 0.85421348 0.023417359
-127.10069 223.26895 2140.8845 -0.18687156 -0.49555385 0.84823662 0.019390792
-403.60117 589.41772 2136.0793 0.036307424 -0.96941561 -0.2427244 0.017735424
-395.52841 590.3847 2133.2715 0.023486232 -0.97403806 -0.22516273 0.018095134
-385.19983 589.46295 2135.2939 -0.033776514 -0.97583985 -0.21586038 0.014971567
-371.4949 588.01324 2137.344 -0.038330507 -0.97721809 -0.20874774 0.01622211
-366.11722 587.62653 2138.5325 -0.019882103 -0.97863156 -0.20465833 0.016565382
-351.32495 588.66357 2131.9006 0.020917872 -0.98034185 -0.19619441 0.018470291
-344.4006 587.7771 2139.6609 0.057622269 -0.98309821 -0.17377469 0.017533069
-313.07187 591.93335 2136.406 0.081368946 -0.98170602 -0.17214042 0.017769679
-307.33044 592.53088 2135.7891 0.062805928 -0.98260522 -0.1747639 0.018406574
-294.89868 592.37341 2135.9895 0.039930221 -0.98465335 -0.16989215 0.021077307
-286.55676 592.97827 2133.1682 0.036326069 -0.98589468 -0.16337717 0.021763381
-273.28467 593.49567 2134.6812 0.044744015 -0.98584908 -0.16155371 0.020809565
-262.17807 594.08698 2136.3513 0.062534973 -0.98622739 -0.15311725 0.018651694
-254.54369 595.01654 2135.6165 0.06750793 -0.98521012 -0.15749192 0.019966168
-223.87627 596.76202 2136.5659 0.037231889 -0.9837907 -0.17541274 0.021130966
-216.09943 596.88269 2137.2751 0.010744195 -0.97935748 -0.20185028 0.024411855
-203.5338 596.7489 2137.7781 -0.023231994 -0.97932106 -0.20097405 0.025440905
-156.47726 597.1955 2134.4702 0.043069873 -0.96501076 -0.2586489 0.03701169
-136.36482 597.32184 2138.3247 0.069086753 -0.96654892 -0.24700254 0.033911925
-128.58705 597.19287 2140.2305 0.074727803 -0.97281224 -0.21920791 0.031994343
-94.69828 601.77832 2139.7219 0.07761196 -0.985879 -0.14838794 0.036420569
-87.562401 603.20001 2136.7197 0.057762623 -0.98757714 -0.14613293 0.040746853
-396.36902 589.54065 2136.0764 0.026568569 -0.9719764 -0.23357236 0.018213931
-385.24658 589.4234 2135.1584 -0.035622958 -0.97582316 -0.21563892 0.015057267
-376.21274 588.91071 2134.7351 -0.048722778 -0.97626352 -0.21103464 0.014496313
-366.74802 588.81726 2131.8247 -0.029463662 -0.97842932 -0.20446984 0.01604123
-356.88794 588.25006 2133.2129 0.0065280977 -0.97893322 -0.20407629 0.017709121
-347.0452 588.43304 2134.5513 0.042777918 -0.98097104 -0.18938272 0.018305525
-334.66992 589.76892 2135.0869 0.086111814 -0.97883952 -0.18562855 0.016421175
-323.58905 591.27771 2134.2507 0.088144913 -0.97834539 -0.18727197 0.016465511
-315.19955 591.74011 2136.0276 0.078688867 -0.98069626 -0.17900522 0.017673453
-303.49789 593.04089 2133.1948 0.059248909 -0.98329782 -0.17209004 0.019438662
-293.03052 593.01257 2133.8972 0.032890275 -0.98532432 -0.16749379 0.020522418
-283.56021 592.40009 2136.5706 0.037598882 -0.98482341 -0.16943794 0.020115025
-275.909 592.43024 2136.9106 0.044584952 -0.98583657 -0.16167401 0.0195051
-265.77982 593.75684 2134.1121 0.058574755 -0.98562759 -0.15845272 0.019834224
-256.31421 594.63092 2135.6018 0.067221969 -0.98633504 -0.1504142 0.01938959
-244.6058 595.59558 2135.3552 0.052787747 -0.98516959 -0.16326159 0.020405445
-235.41504 596.01428 2134.668 0.056964658 -0.98479193 -0.16413382 0.020781925
-224.45093 596.97479 2134.8557 0.04429172 -0.98465019 -0.16882598 0.019912999
-214.71594 596.83862 2136.241 0.019670006 -0.98084962 -0.1937706 0.022508396
-205.12898 597.85608 2133.0039 -0.010503479 -0.97790313 -0.20879462 0.024739556
-194.77466 597.03809 2133.9148 -0.030978769 -0.97439021 -0.22271952 0.026652103
-186.29538 595.50635 2136.6592 -0.024972107 -0.97449517 -0.22301479 0.02802016
-175.83536 596.26141 2132.1033 0.01285582 -0.96811008 -0.25019506 0.029504752
-165.0392 596.61572 2132.8894 0.03172281 -0.96751964 -0.2507976 0.031894252
-156.36812 595.7572 2136.978 0.038849439 -0.96586347 -0.25612193 0.034228139
-145.40569 596.83966 2136.6272 0.066530317 -0.96352947 -0.25919998 0.03345415
-135.75822 597.82922 2136.2319 0.064927749 -0.96866173 -0.23974738 0.03376789
-125.70717 598.9552 2133.3132 0.071725905 -0.97475678 -0.21143462 0.035147659
-93.805832 602.01764 2135.2678 0.062067088 -0.98752904 -0.14468606 0.035288159
-86.676277 602.8493 2136.4937 0.057429235 -0.98663777 -0.15247224 0.036472201
-75.476906 603.32635 2136.1838 0.014305228 -0.98781216 -0.15499181 0.036232427
-68.346619 602.5932 2138.3137 -0.0052980357 -0.98840362 -0.15175717 0.03603626
-34.815876 601.36536 2136.6499 0.030557558 -0.9853158 -0.16798519 0.032244422
-23.204512 603.0683 2134.6763 0.076372012 -0.98443931 -0.15826115 0.029958675
-16.673594 603.55072 2135.5562 0.089833587 -0.9853797 -0.1447645 0.026963025
-9.2770405 604.39984 2138.573 0.098540142 -0.98482788 -0.14284225 0.02473502
52.481926 604.65656 2135.6177 0.047251634 -0.98010772 -0.19275935 0.021316534
64.728355 605.66315 2138.6853 0.068601862 -0.97878784 -0.19304955 0.020114562
77.112541 606.93689 2142.0659 0.07044553 -0.97665936 -0.20291355 0.023043389
87.733948 608.03052 2141.127 0.060323048 -0.9828217 -0.17442092 0.026754601
94.762901 608.5304 2140.2026 0.051034905 -0.98695451 -0.15269667 0.028128581
237.69095 606.19257 2138.9419 -0.013615258 -0.98689646 -0.16077937 0.013603882
244.56369 605.88232 2139.5874 -0.011506421 -0.98688835 -0.16099392 0.013967982
258.66284 606.25458 2136.8828 0.0060640243 -0.98318571 -0.18250783 0.014212502
264.55164 606.46942 2136.4592 0.014453559 -0.98188144 -0.18894427 0.014425871
365.74878 604.73053 2136.7573 -0.097194813 -0.97272915 -0.21059732 0.020745756
373.62463 604.28857 2135.2051 -0.10429889 -0.974424 -0.19904658 0.022666875
-325.23593 591.45691 2131.248 0.085347615 -0.97993064 -0.18014362 0.016446596
-310.79272 593.04535 2129.5208 0.077943906 -0.98006588 -0.18274473 0.018922286
-305.9339 593.65863 2128.9988 0.06587375 -0.98061627 -0.18453282 0.019114036
-257.76624 593.81012 2138.5083 0.066002332 -0.98646486 -0.15010238 0.020703431
-227.75214 595.98376 2138.1248 0.04338637 -0.98200709 -0.1837925 0.019966373
-214.43144 596.49695 2137.4453 0.019294597 -0.97979486 -0.19907232 0.022673184
-207.50139 596.58728 2138.0852 -0.0095423209 -0.9790715 -0.20329267 0.023855966
-192.85944 596.65051 2133.6396 -0.027510986 -0.97427011 -0.22369817 0.02743395
-181.78873 596.02264 2132.5327 -0.0022707987 -0.9714148 -0.2373777 0.030279141
-172.75346 595.94696 2133.2568 0.010126012 -0.96943283 -0.24514782 0.031045176
-166.04987 596.01703 2134.2031 0.028425163 -0.96747166 -0.25137731 0.031191461
-156.82855 596.49432 2134.1472 0.03617372 -0.96420461 -0.2626802 0.034797736
-140.29123 597.69727 2134.7583 0.068148077 -0.96521717 -0.25241166 0.033430792
-133.86267 598.78033 2131.1633 0.063445769 -0.96949482 -0.23675816 0.033689998
-102.64245 600.61713 2133.6736 0.081962973 -0.98323965 -0.16285551 0.033161368
-96.332123 601.91754 2130.957 0.062241506 -0.986709 -0.15010464 0.033508275
-84.782135 603.07874 2134.6506 0.050931081 -0.98731011 -0.15041541 0.036593914
-77.974854 602.58795 2139.7717 0.041408211 -0.98766655 -0.15099724 0.037000891
-66.788376 602.69403 2133.9785 -0.014473394 -0.98847479 -0.15069228 0.035035845
-34.071655 601.38055 2134.9873 0.038286325 -0.98654705 -0.15893088 0.033423118
-23.18434 602.46228 2135.8772 0.067085654 -0.9858489 -0.15362778 0.030194826
-15.473123 603.29095 2134.3193 0.086092465 -0.98382539 -0.15708488 0.029186931
5.1572447 605.41589 2137.7224 0.061821386 -0.98918134 -0.13303526 0.023159796
17.110554 605.3974 2137.7729 0.026591606 -0.9882412 -0.15057306 0.023858363
24.110537 605.1601 2137.4858 0.0089714415 -0.98825133 -0.15257411 0.020628355
35.186333 604.8595 2133.3257 0.017639849 -0.98321009 -0.18162249 0.022088626
41.846329 603.35669 2137.5339 0.030572863 -0.98453951 -0.17247404 0.021648023
54.593262 605.57233 2134.24 0.048759826 -0.98041254 -0.19082382 0.021636624
68.30674 607.11652 2135.3521 0.068482496 -0.97933143 -0.19031583 0.019979918
73.82338 607.46405 2136.1907 0.068968907 -0.98083168 -0.18224303 0.021440303
84.5616 608.75256 2135.5334 0.059239626 -0.98442042 -0.16555084 0.024279239
92.581657 609.37207 2134.4297 0.037569508 -0.98865563 -0.14542544 0.025443221
103.32119 609.12024 2131.5618 -0.00072173122 -0.99222088 -0.12448775 0.024256565
115.83919 607.59143 2135.5571 -0.018093808 -0.99535525 -0.09455476 0.02344599
125.13468 606.96149 2136.688 -0.014977875 -0.99641019 -0.083320856 0.020004587
137.55396 607.62726 2136.3584 -0.0070068561 -0.99538535 -0.095702134 0.015591045
144.6123 608.10114 2135.6406 -0.0088127041 -0.99430841 -0.10617475 0.01287723
155.50549 608.44 2135.1558 -0.015141813 -0.9930684 -0.11655863 0.01276903
164.25909 608.49207 2134.6396 -0.0030047782 -0.99181181 -0.12767269 0.013160503
176.47414 608.26801 2134.3196 0.0044178437 -0.99051064 -0.13736495 0.014323117
184.99997 608.24451 2134.7214 -0.0011425578 -0.98976266 -0.14271855 0.014150296
195.08128 608.26898 2134.7556 -0.012381391 -0.98831177 -0.15194258 0.014842976
204.44601 608.03516 2135.1052 -0.018091382 -0.98817456 -0.15226214 0.014480907
214.22227 607.7077 2134.9692 -0.023022413 -0.98738039 -0.15668406 0.014299324
225.04027 607.32135 2135.3843 -0.0142687 -0.98715472 -0.15912859 0.014175557
234.6476 607.05469 2132.8425 -0.0071123745 -0.98459297 -0.17471732 0.013786965
244.21759 606.54987 2135.6113 -0.0066768895 -0.98574483 -0.16811457 0.013987808
255.67661 606.36224 2135.9065 0.0049886936 -0.98359185 -0.18033911 0.01540586
264.03485 606.55164 2135.907 0.019130426 -0.98225027 -0.18659703 0.014072253
288.61716 607.62897 2134.3438 0.054702125 -0.9821949 -0.17972445 0.014762348
295.51059 608.07446 2135.2275 0.057222091 -0.98096669 -0.18555325 0.015101776
304.12491 608.74487 2136.1958 0.054900561 -0.97992861 -0.19163977 0.015521575
314.7504 609.48596 2135.905 0.023823394 -0.97871703 -0.20382705 0.015495286
325.98245 609.39636 2135.8154 -0.007843758 -0.97894698 -0.20396385 0.018509617
336.28397 608.4433 2136.373 -0.041353047 -0.9749279 -0.2186446 0.018438989
343.8671 607.79156 2135.5063 -0.067280278 -0.97344679 -0.218803 0.017561924
354.36624 606.1958 2136.7795 -0.095353685 -0.96984696 -0.22428678 0.017565997
366.30017 604.65002 2136.7034 -0.097994916 -0.97326404 -0.2077357 0.019942181
374.72971 604.10461 2135.4595 -0.095276333 -0.97618383 -0.19490395 0.021813715
382.81516 603.375 2136.0417 -0.089736328 -0.98017454 -0.17664997 0.024129374
-141.07376 597.18201 2135.3452 0.074099928 -0.9635883 -0.2569178 0.033822224
-134.04965 597.23877 2136.1567 0.071733519 -0.96688503 -0.24492383 0.0360009
-86.367584 602.54004 2135.717 0.055835806 -0.98853403 -0.1402954 0.03676565
-78.921486 603.55255 2133.0198 0.030503981 -0.98835874 -0.14905214 0.036504973
-21.331541 602.65417 2132.7339 0.068077199 -0.98400825 -0.16460034 0.031879146
-14.220517 603.414 2132.7935 0.071936011 -0.98591262 -0.15100175 0.030076908
0.017821398 605.1712 2133.895 0.07493946 -0.98705959 -0.14176552 0.026128622
2.6984751 605.68042 2133.4478 0.066461198 -0.98761272 -0.14214073 0.025411336
15.895742 606.61133 2132.2395 0.040765367 -0.98658168 -0.15809731 0.0243585
67.477173 607.49518 2132.3882 0.066235065 -0.97854042 -0.19511928 0.024222614
74.890747 607.56439 2134.2012 0.068621479 -0.98229831 -0.17430165 0.023644481
85.395615 609.08398 2133.6714 0.057658657 -0.98574537 -0.15805544 0.024418656
94.737457 609.02081 2135.6538 0.036912616 -0.98894244 -0.14363265 0.027512427
105.19398 608.38379 2136.6396 0.0037948228 -0.99306369 -0.11751647 0.027548106
123.55377 607.85803 2130.6736 -0.021324301 -0.99594903 -0.087354802 0.017982211
134.34406 607.91437 2131.7925 -0.002146618 -0.99611485 -0.088037796 0.015027859
164.90858 607.95117 2137.9268 -0.0082702404 -0.99335098 -0.11482767 0.013085143
171.6992 607.58264 2138.5806 -0.0044374117 -0.99161887 -0.12912139 0.0136694
195.4379 607.65131 2137.7766 -0.014806149 -0.9888134 -0.14842097 0.014362946
256.00253 607.05823 2131.9934 0.010743779 -0.98144358 -0.19144997 0.014312133
264.13162 606.99158 2133.4436 0.022326784 -0.98175979 -0.18880999 0.014548426
277.89743 606.99475 2134.2874 0.034027528 -0.98127002 -0.18960811 0.014882561
307.24677 609.17493 2135.0398 0.049643621 -0.97990632 -0.19318157 0.015641961
328.13867 610.3374 2132.0049 -0.0079699988 -0.97891539 -0.20411047 0.017812967
337.22864 610.41681 2130.2148 -0.046311937 -0.9767105 -0.20950383 0.019204231
367.68054 605.12885 2133.8472 -0.104517 -0.97016615 -0.21875517 0.020574979
372.0351 605.36615 2131.1628 -0.1082752 -0.97286731 -0.20446438 0.020132655
382.5755 603.98181 2132.428 -0.10083969 -0.97991043 -0.17206642 0.024273273
260.11401 -361.17508 2137.3667 -0.0022746632 -0.69416302 0.71981424 0.083263725
245.79492 -349.12256 2141.7979 -0.20139973 -0.71755958 0.66674316 0.095523618
253.2047 -354.42587 2143.2563 -0.051635787 -0.69783562 0.71439427 0.09309011
264.10425 -352.50107 2143.1826 0.21673813 -0.64952582 0.7287941 0.083288975
237.57936 -341.18784 2141.853 -0.46967736 -0.7026813 0.534455 0.096117981
266.70465 -347.30255 2144.2739 0.32954627 -0.61006868 0.72056609 0.087625422
269.97662 -341.133 2144.2451 0.47900045 -0.54926765 0.68473619 0.073741592
226.60307 -332.95319 2142.4197 0.76343441 0.5580526 -0.32518485 0.086539194
232.18855 -335.66519 2145.5527 -0.5777896 -0.6553089 0.48654842 0.12317076
276.56039 -332.11096 2141.8352 0.68828368 -0.40671301 0.60070801 0.061241489
221.61848 -326.13629 2145.8208 0.86670309 0.42318514 -0.26408356 0.11818379
230.00385 -330.27161 2150.2405 -0.62880915 -0.61788833 0.47203076 0.14180298
275.95819 -324.68048 2145.5225 0.72187567 -0.36031303 0.59082156 0.065849796
280.40759 -323.66745 2140.5637 0.80077642 -0.28937635 0.52442199 0.051450178
215.10077 -311.98499 2143.6326 0.98317242 0.18164735 -0.019395869 0.082756728
215.48528 -316.759 2145.7932 0.96843302 0.24280268 -0.056430183 0.10099088
278.35428 -315.85983 2146.9343 0.79434609 -0.29221696 0.53256315 0.046220366
281.08835 -314.50214 2143.4883 0.84387851 -0.24939236 0.47504997 0.04718931
213.65817 -305.86288 2146.8704 0.99596119 0.065468334 0.061442595 0.081469662
213.89751 -304.02353 2145.2615 0.99672771 -0.019177653 0.078524657 0.086003117
280.55954 -308.55533 2145.7175 0.86438859 -0.22701827 0.44865918 0.069259964
282.81921 -303.48425 2144.6499 0.89193547 -0.16795582 0.41981184 0.061426856
213.59322 -296.41699 2147.1223 0.95471483 -0.26499999 0.13525733 0.098847724
217.1004 -292.11334 2142.3284 0.91612208 -0.35966092 0.17709981 0.11976644
285.16708 -294.90732 2144.2825 0.93686712 -0.01608555 0.34931538 0.065447122
285.76636 -294.73352 2143.7339 0.92099184 -0.028207639 0.38855928 0.042515207
217.0276 -287.70789 2148.8469 0.85569662 -0.48519427 0.17991604 0.10195164
222.8069 -284.4194 2144.2407 0.81631881 -0.54345649 0.19564924 0.10891486
284.9133 -285.20108 2144.4468 0.9657197 0.17561442 0.19116746 0.095960841
285.19757 -283.17529 2144.1689 0.95189786 0.13465114 0.27524444 0.057266742
228.03961 -278.48798 2143.9731 0.74797535 -0.6140368 0.2519756 0.071108088
237.87262 -280.0163 2148.9448 0.63370866 -0.74331689 0.21422726 0.12119231
281.87286 -275.6337 2144.6736 0.94457453 0.28693414 0.15952349 0.10288768
284.12006 -276.33853 2140.7419 0.92871112 0.36872917 0.039171878 0.0938088
256.66632 -270.95401 2155.3381 0.0034118523 -0.86049563 0.50944644 0.18617365
280.88345 -269.61169 2141.594 0.85946119 0.50912124 -0.046065908 0.10729892
261.57678 -266.7594 2154.5073 -0.14807469 -0.88113052 0.44909123 0.18352996
265.81293 -261.77625 2149.1929 -0.31602275 -0.89608341 0.31171158 0.15988232
265.07303 -259.13208 2151.0215 -0.36847937 -0.86401212 0.34308302 0.15485376
-99.980545 -80.652191 2136.4697 0.21670164 -0.40781659 0.88697577 0.01986728
-144.12321 -71.104401 2139.6748 -0.29707035 -0.40006727 0.86700368 0.021847546
-136.12773 -73.2491 2140.8862 -0.18931043 -0.40731308 0.89345264 0.022482369
-116.14503 -73.570541 2142.3843 0.050646368 -0.41334242 0.9091661 0.022091987
-106.0698 -73.830811 2141.009 0.15041681 -0.41677406 0.89647877 0.01629938
-98.132942 -73.159698 2139.9563 0.23492078 -0.40854347 0.88198894 0.021485945
-145.50578 -63.443085 2143.4973 -0.31281295 -0.39531222 0.86364132 0.023701519
-137.83441 -64.620773 2145.0369 -0.21012846 -0.41075158 0.88720298 0.023821479
-126.85479 -64.586319 2146.3662 -0.075562857 -0.41813666 0.90523589 0.018025342
-116.60114 -66.353294 2145.4722 0.039480928 -0.41488069 0.90901887 0.019045778
-107.84581 -66.399475 2144.8328 0.13351373 -0.41914403 0.89804918 0.016958119
-96.77652 -65.004326 2143.707 0.25478959 -0.4105978 0.87549514 0.024948634
-87.443863 -63.257687 2141.7927 0.36601561 -0.39094347 0.84450918 0.03416615
-78.610733 -59.134232 2138.5408 0.49791944 -0.3534812 0.79191369 0.032549337
-161.98001 -52.753967 2139.811 -0.53028768 -0.31841642 0.78575188 0.02531549
-154.22926 -55.186745 2143.8484 -0.42801628 -0.36551732 0.82655859 0.02849477
-147.71452 -57.707748 2145.8027 -0.34223327 -0.39294627 0.8535043 0.02784791
-136.31122 -56.83329 2149.0967 -0.19878826 -0.41515836 0.88776505 0.025135847
-127.84388 -58.418022 2149.2878 -0.086057425 -0.41740245 0.90463769 0.021140113
-114.23951 -59.502407 2148.5493 0.062590778 -0.42046496 0.90514731 0.01916825
-109.56194 -58.905792 2148.2068 0.11315618 -0.4147155 0.902888 0.01860683
-94.665054 -56.785702 2146.7068 0.28037664 -0.40008485 0.87253714 0.027862292
-85.999275 -54.705006 2144.741 0.39089122 -0.37717804 0.83960754 0.033152726
-76.015312 -53.147022 2139.5293 0.53682369 -0.3395316 0.77235913 0.032641415
-163.72813 -44.706818 2142.124 -0.58022916 -0.27412149 0.76693648 0.026535464
-156.89409 -46.124966 2146.5369 -0.48098031 -0.32590485 0.81390661 0.030067107
-149.01364 -47.457458 2150.5957 -0.38223335 -0.36626235 0.84838057 0.032651015
-114.37202 -50.318943 2152.1277 0.074143142 -0.4263728 0.90150374 0.021027865
-103.76215 -45.197365 2153.4639 0.18481673 -0.41159984 0.89242834 0.030767797
-95.832397 -49.12822 2150.2026 0.2729919 -0.39912587 0.87531364 0.030915456
-84.567223 -45.927128 2147.1338 0.42463434 -0.37630019 0.82345849 0.033580501
-75.664177 -43.028896 2142.8667 0.54443091 -0.35256124 0.76111466 0.033596139
-70.672173 -42.097183 2139.502 0.60855377 -0.33647221 0.71864372 0.032677997
-169.36319 -30.930017 2141.1228 0.70669651 0.14564805 -0.69236314 0.022769855
-164.6073 -34.754341 2144.9309 -0.63521844 -0.21459602 0.74192053 0.026207808
-156.92961 -39.756866 2149.3188 -0.50528473 -0.30593935 0.8069005 0.029800242
-83.454132 -37.796268 2149.4341 0.44904995 -0.40629619 0.79578739 0.034575574
-77.539711 -34.507572 2147.5347 0.52583325 -0.39431068 0.75367004 0.035371087
-68.780113 -33.227623 2141.4275 0.63102925 -0.35023704 0.69219661 0.035759281
-171.73819 -25.573986 2139.7251 0.75489372 0.095863469 -0.64880323 0.026025724
-165.48537 -24.879387 2146.1311 -0.6869188 -0.14960016 0.71116972 0.026488833
-78.031677 -27.836754 2151.2866 0.52848828 -0.42706138 0.73370206 0.035490807
-66.696541 -24.591267 2143.7915 0.6697737 -0.35841024 0.65034246 0.033178195
-61.676521 -22.802885 2139.1641 0.73489016 -0.31179789 0.60226119 0.030238023
-170.24913 -10.326331 2140.0388 0.80323267 0.063033521 -0.59232092 0.026663929
-165.56947 -15.169066 2146.1826 0.73729205 0.10754561 -0.66695905 0.025283679
-159.69649 -17.209967 2152.5728 -0.65620941 -0.17467481 0.73408306 0.030350821
-67.173561 -19.229815 2147.7517 0.67175627 -0.36106512 0.64681947 0.035864118
-63.864216 -14.010653 2146.6438 0.72996539 -0.33124885 0.59785008 0.033565301
-58.558857 -12.861178 2139.9746 0.79253238 -0.26799232 0.5477888 0.02484611
-169.52863 -5.5857882 2140.4971 0.81159574 0.072611876 -0.57968944 0.029480595
-164.70331 -5.0941439 2145.8606 0.77496123 0.10664478 -0.6229462 0.024088874
-66.173439 -12.477148 2151.2927 0.70083565 -0.35137179 0.62077957 0.037649155
-61.946716 -8.2084551 2147.9561 0.7654956 -0.29226243 0.57323569 0.031090429
-58.283161 -3.8051853 2144.1062 0.81534046 -0.23612665 0.52864367 0.023995243
-54.789822 -1.2784258 2138.9175 0.85148942 -0.19400398 0.48716345 0.019087272
-169.17412 2.6381195 2140.9907 0.82976937 0.11096288 -0.54696435 0.030001471
-166.42935 5.8810153 2144.5627 0.81042629 0.15477324 -0.5650261 0.028502008
-55.986877 4.9967203 2144.0549 0.84586251 -0.18786989 0.49922097 0.021844354
-167.19031 14.015953 2147.2803 0.82328624 0.21168379 -0.52667803 0.030046348
-58.199421 10.572479 2149.8784 0.84341997 -0.17952806 0.5063718 0.022267153
-55.172802 15.370796 2145.7217 0.86924851 -0.14211205 0.4735094 0.019261535
-51.350586 17.888872 2139.2837 0.89287889 -0.10118357 0.43878144 0.015784541
-175.07057 26.857836 2143.0769 0.90204877 0.20545401 -0.37960073 0.034830254
-170.8027 22.708763 2147.7881 0.85337615 0.24534225 -0.45995256 0.032229457
-56.243416 27.739553 2150.4827 0.8788358 -0.10092604 0.46632779 0.019278597
-53.490768 26.456633 2144.6348 0.89642066 -0.083347358 0.43529671 0.018095464
-51.582588 24.119581 2140.6543 0.90059674 -0.081473716 0.4269515 0.017294822
-178.47238 37.892094 2142.9197 0.93450844 0.19430906 -0.29822466 0.032427758
-176.37004 33.822178 2145.7085 0.90956616 0.2247467 -0.34954017 0.032140713
-172.87259 29.291466 2149.1489 0.87366134 0.24643351 -0.41950727 0.028077813
-56.409458 35.734337 2151.2649 0.88709402 -0.068316124 0.4565053 0.016374839
-53.639454 34.98661 2145.7637 0.90121591 -0.052893445 0.43013045 0.014607375
-50.736084 38.67572 2141.4346 0.92165923 -0.016989872 0.38762814 0.016227508
-179.98517 45.073734 2144.6541 0.94739616 0.1828806 -0.2626693 0.03213283
-177.38316 40.605755 2148.4927 0.91909027 0.21478796 -0.33036217 0.030400578
-53.783195 43.458664 2146.9617 0.90815294 -0.0083662001 0.41855493 0.012947611
-50.441914 45.740906 2141.3376 0.92999142 0.0098959515 0.36744803 0.015466972
-181.74554 52.047298 2142.3423 0.97020996 0.13914014 -0.19832459 0.033146031
-181.52647 55.177116 2146.4521 0.96295583 0.14856984 -0.22504021 0.032228813
-52.910236 55.126842 2146.8601 0.92113405 0.011387828 0.38907889 0.016676452
-50.16658 53.857506 2141.4636 0.93855661 0.032277282 0.34361273 0.016408186
-182.119 65.81115 2142.3289 0.98811764 0.092835575 -0.1224954 0.030522678
-181.75757 63.89315 2147.5994 0.9737103 0.12311747 -0.19165169 0.033414152
-52.013992 65.094482 2145.5354 0.93891478 0.066978052 0.33756924 0.024657419
-181.32199 75.544846 2144.8586 0.98960376 0.11293444 -0.08905147 0.030479264
-53.066753 75.690826 2146.4929 0.94939733 0.099174052 0.29800871 0.028977087
